ply
format ascii 1.0
element vertex 681
property float x
property float y
property float z
property uchar red
property uchar green
property uchar blue
end_header
2.542922019958496 1.2473681436612631 2.2272519871947933 102 102 102
2.542922019958496 0.7884148320179837 -2.8365940854707015 102 102 102
2.542922019958496 1.1157420197437995 0.9503535599136566 102 102 102
2.542922019958496 0.7535412300074846 -2.715785003010759 102 102 102
2.542922019958496 1.1424124492655108 2.535147509099869 102 102 102
2.5429220199584965 1.3329436038573372 3.980166163902612 102 102 102
2.542922019958496 0.9333044379268612 -2.973028339686531 102 102 102
2.542922019958496 0.9597653490365886 -2.6118110968524038 102 102 102
2.542922019958496 1.0127905217142448 1.9378570837640585 102 102 102
2.542922019958496 0.8932129725025191 -2.843723550542764 102 102 102
2.542922019958496 0.8568642323018466 -2.81487003443169 102 102 102
2.542922019958496 1.1873234624297304 -2.7999107568824124 102 102 102
2.542922019958496 0.9425748489987014 -3.36239482882203 102 102 102
2.542922019958496 0.4582831184618886 -4.268714758260458 102 102 102
2.542922019958496 1.0237387799387612 -3.2437501647719316 102 102 102
2.542922019958496 1.1761507714355663 -2.868999680640762 102 102 102
2.542922019958496 1.3988537608907232 0.4294564506451204 102 102 102
2.542922019958496 1.3856703609927268 -2.059068440414953 102 102 102
2.542922019958496 1.3295053537310437 -0.43950035272940835 102 102 102
2.542922019958496 1.2917671354773466 -2.57281286558241 102 102 102
2.542922019958496 1.1249104332578121 0.17895370990597814 102 102 102
2.542922019958496 0.6097911653495102 -1.0505354407872678 102 102 102
2.542922019958496 1.2134707008437595 -2.5133876556921355 102 102 102
2.5429220199584956 0.5487848513184219 -2.3712163654338596 102 102 102
2.542922019958496 1.3921908235505316 -0.21981098271169275 102 102 102
2.5429220199584956 0.7431610470239942 -1.594290573463376 102 102 102
2.542922019958496 1.387139284555324 0.6607241741194869 102 102 102
2.600209807020978 1.4196192293885688 4.970936021819866 102 102 102
3.143264698679091 3.160219480119898 0.25869810581207275 102 102 102
2.987402819523517 2.0275065805748467 0.2586981058120727 102 102 102
2.982512299125359 9.287171522367279 0.25869810581207275 102 102 102
3.250572145398668 1.0090276465841999 0.25869810581207275 102 102 102
2.994329632648299 3.9493948326226023 0.25869810581207275 102 102 102
3.128751220433777 5.874923436127474 0.25869810581207275 102 102 102
3.143658226924342 4.484059911524959 0.25869810581207275 102 102 102
2.9815852686777986 4.288982116257129 0.25869810581207275 102 102 102
2.9682742054283535 7.154001623524475 0.25869810581207275 102 102 102
2.988876392440143 3.6694617521341 0.25869810581207275 102 102 102
3.1270443534674555 6.194267720480601 0.25869810581207275 102 102 102
3.0112946500565023 3.8359561658027728 0.25869810581207275 102 102 102
3.1946120214772664 3.435932149240624 0.25869810581207275 102 102 102
2.9362873323331375 7.480326151170664 0.25869810581207275 102 102 102
3.4495804844492106 2.106461543192028 0.25869810581207275 102 102 102
3.258866317075711 4.917908417345081 0.25869810581207275 102 102 102
2.985212430499411 8.109764268696482 0.25869810581207275 102 102 102
3.1892891340644014 6.051286594809592 0.25869810581207275 102 102 102
3.2355625624556636 4.395336840624914 0.25869810581207275 102 102 102
3.2057198922942125 4.242092951359385 0.25869810581207275 102 102 102
3.1076323422543557 2.1707280982963475 0.25869810581207275 102 102 102
3.0578263161262274 7.154147360713879 0.25869810581207275 102 102 102
3.1585754197531797 6.658030531127959 0.25869810581207275 102 102 102
3.2268225261294505 2.2594078769531927 0.25869810581207275 102 102 102
3.313551380617264 4.128562474817744 0.25869810581207275 102 102 102
3.058038227843458 8.32598405370016 0.25869810581207275 102 102 102
3.1013507247898153 5.115385449046937 0.25869810581207275 102 102 102
2.975832786761491 5.8260165706034135 0.25869810581207275 102 102 102
3.3127218080755494 2.3764473700158018 0.25869810581207275 102 102 102
3.360867827091758 4.2144268699124465 0.25869810581207275 102 102 102
3.2475523880118766 1.8444000168062422 0.25869810581207275 102 102 102
3.067091817791719 5.123110365140946 0.25869810581207275 102 102 102
2.945790449487675 9.209671851308206 0.25869810581207275 102 102 102
3.1448216212541418 3.9363442970033335 0.25869810581207275 102 102 102
3.334777952734444 1.2991772687912917 0.25869810581207275 102 102 102
3.034009869789494 6.43505091994795 0.2586981058120728 102 102 102
3.2968848128480652 2.1200358595445334 0.25869810581207275 102 102 102
3.105234491532099 5.3565419390589915 0.25869810581207275 102 102 102
3.201625983893354 6.610362058774761 0.25869810581207275 102 102 102
3.262898896030145 5.788193541821089 0.25869810581207275 102 102 102
3.093505334620881 4.0456727460673045 0.25869810581207275 102 102 102
3.2384475611552217 5.099502525414868 0.25869810581207275 102 102 102
2.9349108003782116 3.259328312974535 0.25869810581207275 102 102 102
2.9658103546767904 6.179405178736866 0.25869810581207275 102 102 102
3.374143263269718 2.438657476003913 0.25869810581207275 102 102 102
3.3291743636599955 1.5401581055426268 0.25869810581207275 102 102 102
3.188287177193575 3.834697256282901 0.25869810581207275 102 102 102
2.984743304774602 3.9078482572188102 0.25869810581207275 102 102 102
3.0915240249913607 6.332468476994253 0.25869810581207275 102 102 102
2.959847028415878 6.898220706178883 0.25869810581207275 102 102 102
3.1571130444373976 4.714713105256924 0.25869810581207275 102 102 102
3.0804867667280305 2.7632219172328534 0.25869810581207275 102 102 102
3.1993290791219167 3.097694574807995 0.25869810581207275 102 102 102
3.110663081148249 3.526358832220936 0.25869810581207275 102 102 102
3.3854891065065846 1.1756871012213899 0.25869810581207275 102 102 102
3.0405454646589893 8.097680158323069 0.25869810581207275 102 102 102
2.978721840479149 8.42547826833954 0.25869810581207275 102 102 102
3.245705939006401 5.798054023174687 0.25869810581207275 102 102 102
3.170262733921664 1.1486015631978361 0.25869810581207275 102 102 102
3.2361749855296233 5.402170105610926 0.25869810581207275 102 102 102
2.9626338335167546 9.55528783002162 0.25869810581207275 102 102 102
3.101779103466839 7.406590640251566 0.25869810581207275 102 102 102
3.5322612088119465 1.9594595950675524 0.25869810581207275 102 102 102
2.963461037014278 1.6208247673595833 0.25869810581207275 102 102 102
3.5015764039868356 1.9271609105467982 0.25869810581207275 102 102 102
2.9945162013623166 7.328931771445802 0.25869810581207275 102 102 102
3.0673900412638893 8.183709917492543 0.25869810581207275 102 102 102
3.2088326744694617 3.9341679155023637 0.25869810581207275 102 102 102
3.0254601650590365 5.8732513211249975 0.25869810581207275 102 102 102
3.074818817630291 1.917896314357863 0.25869810581207275 102 102 102
3.2036025884025463 5.1358225978250225 0.25869810581207275 102 102 102
3.269851438403554 2.4458876341297904 0.25869810581207275 102 102 102
3.114616582027657 4.178727778825672 0.25869810581207275 102 102 102
3.246266315209103 5.210803299528075 0.25869810581207275 102 102 102
3.5038751722907895 1.3519495470912817 0.25869810581207275 102 102 102
3.2376198757875336 4.570422189809161 0.25869810581207275 102 102 102
3.050187094490558 6.07928616964281 0.25869810581207275 102 102 102
2.9235995050896535 5.858336341311384 0.25869810581207275 102 102 102
3.5586387371198334 1.6108611147920184 0.25869810581207275 102 102 102
3.1086287130341863 7.582376421868797 0.25869810581207275 102 102 102
3.242727534737499 1.455437973947612 0.25869810581207275 102 102 102
3.496784866235417 1.7940576128461547 0.25869810581207275 102 102 102
3.058766317289743 3.715680024655351 0.25869810581207275 102 102 102
2.979956929780349 1.2511597305843123 0.25869810581207275 102 102 102
2.9700292365051313 4.255111777233578 0.25869810581207275 102 102 102
3.439225828748851 1.8990257980243999 0.25869810581207275 102 102 102
3.293034045986359 3.8047125101585926 0.25869810581207275 102 102 102
3.5110608992807513 1.3324659423036715 0.25869810581207275 102 102 102
3.3468942058015037 2.1277641316605953 0.25869810581207275 102 102 102
3.45669162893416 2.415108584122176 0.25869810581207275 102 102 102
3.37979264457348 4.329759076467083 0.25869810581207275 102 102 102
3.157588838997688 6.711948656922045 0.25869810581207275 102 102 102
3.30489116456435 4.675133460274528 0.25869810581207275 102 102 102
2.9921790155737606 1.0129084160109807 0.25869810581207275 102 102 102
3.453411058703796 2.0884088059604227 0.25869810581207275 102 102 102
3.3055877211847147 1.992537499802538 0.25869810581207275 102 102 102
3.0247718146026936 1.2089463705167207 0.25869810581207275 102 102 102
3.5226114201625314 2.2344406712911753 0.25869810581207275 102 102 102
3.388510822666711 4.241244725616522 0.25869810581207275 102 102 102
3.61355734461828 6.602654148932819 0.25869810581207275 102 102 102
3.6380162889766 3.9347586990088024 0.25869810581207275 102 102 102
3.1003874502604347 9.847583860344606 0.25869810581207275 102 102 102
3.583746154692456 4.098320503147374 0.25869810581207275 102 102 102
3.0204114103178017 10.007969814682127 0.25869810581207275 102 102 102
3.274983983806523 9.119747798072247 0.25869810581207275 102 102 102
3.407903274509315 10.221732072754637 0.25869810581207275 102 102 102
3.5266439466179356 3.2335186921522117 0.25869810581207275 102 102 102
3.2518301481374623 7.471956424092749 0.25869810581207275 102 102 102
3.43242109476906 9.13689576233425 0.25869810581207275 102 102 102
3.5709289389669063 1.9328922290244828 0.25869810581207275 102 102 102
3.6409865104289536 5.061136487724804 0.25869810581207275 102 102 102
3.483130173367322 9.61288329006864 0.25869810581207275 102 102 102
3.435575372977252 6.654462414082483 0.25869810581207275 102 102 102
3.041650532251449 9.31843888203265 0.25869810581207275 102 102 102
3.109782677831771 9.688782296194086 0.25869810581207275 102 102 102
3.418439401848693 6.03016215138801 0.25869810581207275 102 102 102
3.569419855542443 8.565167548698483 0.25869810581207275 102 102 102
3.389580360324948 9.458797699788049 0.25869810581207275 102 102 102
3.194581317433247 9.231965201944735 0.25869810581207275 102 102 102
3.611994323879358 7.133296156650555 0.25869810581207275 102 102 102
3.610603940814888 6.741007947185833 0.25869810581207275 102 102 102
3.559437777453615 8.730778536008378 0.25869810581207275 102 102 102
3.4103268878161885 9.20147677131529 0.25869810581207275 102 102 102
3.6405457582551364 1.5856660290619913 0.25869810581207275 102 102 102
3.4794438617535492 6.535870827821029 0.25869810581207275 102 102 102
3.33994250264195 9.827153336860402 0.25869810581207275 102 102 102
3.448134017097585 8.310039306716309 0.25869810581207275 102 102 102
3.299284566103532 5.490563595130097 0.25869810581207275 102 102 102
3.4696197349131017 10.025731166185192 0.25869810581207275 102 102 102
3.4272357180535042 5.395599761205516 0.25869810581207275 102 102 102
3.4499607185652903 5.067760862690369 0.25869810581207275 102 102 102
3.1759648681275396 7.748886429578827 0.25869810581207275 102 102 102
3.3683519860499014 8.593117479895284 0.25869810581207275 102 102 102
3.431449001024231 8.528903097992929 0.25869810581207275 102 102 102
3.595958552207807 6.500111716254865 0.25869810581207275 102 102 102
3.4568462214679108 8.686042618648765 0.25869810581207275 102 102 102
3.4901738917870984 4.38128275908078 0.25869810581207275 102 102 102
3.6335707425879216 5.466507219986426 0.25869810581207275 102 102 102
3.3663463105571703 10.048456809756146 0.25869810581207275 102 102 102
3.3891921031982912 4.746636263578303 0.25869810581207275 102 102 102
3.149608743293196 8.163233469599556 0.25869810581207275 102 102 102
3.4334590680443466 8.273077832418837 0.25869810581207275 102 102 102
3.491078589651126 6.759716285844156 0.25869810581207275 102 102 102
3.494206731216125 7.062139700527699 0.25869810581207275 102 102 102
3.6322196537611715 9.401070321548056 0.25869810581207275 102 102 102
3.5966424367081737 5.093079516718028 0.25869810581207275 102 102 102
3.2135970216001852 8.861041552694433 0.25869810581207275 102 102 102
3.620388633024633 3.5760317626091433 0.25869810581207275 102 102 102
3.3950929925507216 6.203425460788958 0.25869810581207275 102 102 102
3.547100888992786 4.717511405837035 0.25869810581207275 102 102 102
3.441213808081565 9.090041084570537 0.25869810581207275 102 102 102
3.187506789687914 8.53268624783704 0.25869810581207275 102 102 102
3.5910444094253307 6.739292496116844 0.25869810581207275 102 102 102
3.285397319914374 9.97040781148043 0.25869810581207275 102 102 102
3.4673216683679042 6.104955522738946 0.25869810581207275 102 102 102
3.604495539093337 5.343616500838189 0.2586981058120728 102 102 102
3.606790761831973 7.486942059345002 0.25869810581207275 102 102 102
3.367824802755654 10.03036136140983 0.25869810581207275 102 102 102
3.3353165279985677 8.807911575220743 0.25869810581207275 102 102 102
3.456288138783766 5.362886207571702 0.25869810581207275 102 102 102
3.416068383487148 4.459451340089154 0.25869810581207275 102 102 102
3.607908704485187 2.879337359289074 0.25869810581207275 102 102 102
3.539265159601957 5.388506796050544 0.25869810581207275 102 102 102
3.5292788541760176 9.771871601388087 0.25869810581207275 102 102 102
3.463855635549439 9.223225569416712 0.25869810581207275 102 102 102
3.2342465920096917 7.1260065603921685 0.25869810581207275 102 102 102
3.554904457523178 5.823821905544227 0.25869810581207275 102 102 102
3.096591955420399 9.807208316974451 0.25869810581207275 102 102 102
3.1659524926030786 8.628695877226296 0.25869810581207275 102 102 102
3.303811379839998 9.691241725107783 0.25869810581207275 102 102 102
3.6020149720136336 2.8922727970382467 0.25869810581207275 102 102 102
3.2890818009642273 8.177047832469857 0.25869810581207275 102 102 102
3.3800723120337373 4.573075308614957 0.2586981058120728 102 102 102
3.460181106487367 8.023718354244522 0.25869810581207275 102 102 102
3.356297890932794 6.7037126616935545 0.25869810581207275 102 102 102
3.3519079106667187 7.866375574932679 0.25869810581207275 102 102 102
3.3848784604759095 5.0465423647784275 0.25869810581207275 102 102 102
3.591390512231249 4.905729565330686 0.25869810581207275 102 102 102
3.514417260653193 9.002350935242598 0.25869810581207275 102 102 102
3.4613574239825917 9.645442866224096 0.25869810581207275 102 102 102
3.2770652977220394 10.142849199851902 0.25869810581207275 102 102 102
3.5782085139265893 8.841406644741081 0.25869810581207275 102 102 102
3.562725788579421 10.03899012940682 0.25869810581207275 102 102 102
3.0629696647558515 9.08182901530783 0.25869810581207275 102 102 102
3.5408434939568743 6.847571562982273 0.25869810581207275 102 102 102
3.511113808414896 9.834805447700536 0.25869810581207275 102 102 102
2.9878260031416564 10.114857363614258 0.25869810581207275 102 102 102
3.5176627746739504 8.071625192487971 0.25869810581207275 102 102 102
3.42089281391681 4.820572517859155 0.2586981058120727 102 102 102
3.6272504482011017 1.7827916597679074 0.25869810581207275 102 102 102
3.554228046984781 6.3872979372254814 0.25869810581207275 102 102 102
3.34874482130452 4.953227381461847 0.25869810581207275 102 102 102
2.9993734101290968 10.297805859590582 0.25869810581207275 102 102 102
3.631645651158971 3.414551008011911 0.25869810581207275 102 102 102
2.990532750094796 9.460034546510853 0.2586981058120728 102 102 102
3.3154763276821138 10.170530821553289 0.25869810581207275 102 102 102
3.2565685285038746 6.315506888780572 0.25869810581207275 102 102 102
3.227924048836968 9.756427962461972 0.25869810581207275 102 102 102
2.9822031564723996 6.881089141877705 -0.2586981058120727 102 102 102
3.5337408049191215 9.526167573230135 -0.25869810581207275 102 102 102
2.95836230798312 9.199906334620296 -0.25869810581207275 102 102 102
3.0378700193188877 2.6087981790080264 -0.25869810581207275 102 102 102
3.0944380094784445 10.12275413167891 -0.25869810581207275 102 102 102
3.0024771883571164 6.837332578024332 -0.25869810581207275 102 102 102
3.123035238885016 4.556770422155179 -0.25869810581207275 102 102 102
3.110485687586078 7.734962910577707 -0.25869810581207275 102 102 102
3.145649604879674 4.970814316748378 -0.25869810581207275 102 102 102
3.0597618795072687 4.6371968363163205 -0.25869810581207275 102 102 102
3.226086096884469 9.083570026084736 -0.25869810581207275 102 102 102
3.095799029770857 6.998570793034384 -0.25869810581207275 102 102 102
3.232250850386431 6.051757940701384 -0.25869810581207275 102 102 102
3.130358764418463 5.392991123084346 -0.25869810581207275 102 102 102
3.0620214713239564 4.8377125869065996 -0.25869810581207275 102 102 102
2.987682307398986 3.2447816999623575 -0.25869810581207275 102 102 102
3.009451106795874 8.111686198421001 -0.25869810581207275 102 102 102
3.1975818064690085 8.720127886582336 -0.25869810581207275 102 102 102
3.1020175110361485 9.561608658325596 -0.25869810581207275 102 102 102
3.11060037424193 8.085975718438092 -0.2586981058120727 102 102 102
3.1136139783085213 4.368136687860694 -0.2586981058120727 102 102 102
3.0164820166183732 9.934949841752525 -0.25869810581207275 102 102 102
3.158808722317393 9.970831668211597 -0.25869810581207275 102 102 102
2.9903609689675967 8.959070161819245 -0.25869810581207275 102 102 102
3.4477565277506486 10.043869766161936 -0.25869810581207275 102 102 102
3.537677857850652 10.097312842024824 -0.25869810581207275 102 102 102
2.9544427673153724 7.821334815741455 -0.25869810581207275 102 102 102
3.003006956548338 3.7794237523440914 -0.25869810581207275 102 102 102
3.3106609131941473 9.097863869520424 -0.25869810581207275 102 102 102
3.2370730137684687 5.69300908869467 -0.25869810581207275 102 102 102
3.3136372773871416 8.737032875220011 -0.25869810581207275 102 102 102
3.172336515005214 7.7811476483253905 -0.25869810581207275 102 102 102
3.2020290017163107 9.456614922749484 -0.25869810581207275 102 102 102
3.3178347270757307 7.588540590563159 -0.25869810581207275 102 102 102
3.1948213477384435 6.891594993151308 -0.25869810581207275 102 102 102
3.335692470593097 9.038736896912027 -0.25869810581207275 102 102 102
2.962931303180125 10.200368940772442 -0.25869810581207275 102 102 102
3.430150458274118 8.968160055425676 -0.25869810581207275 102 102 102
3.196913881100193 6.075057209375641 -0.25869810581207275 102 102 102
3.241799254361914 5.709129595213548 -0.25869810581207275 102 102 102
3.166671861667444 9.114505333600869 -0.25869810581207275 102 102 102
2.945590975948204 2.6079341433425296 -0.25869810581207275 102 102 102
3.134756040998542 5.548927083614226 -0.25869810581207275 102 102 102
3.227605575952704 5.671098143899716 -0.25869810581207275 102 102 102
2.934255443264151 8.46227401244605 -0.25869810581207275 102 102 102
2.919825795299642 5.950584938164441 -0.25869810581207275 102 102 102
3.3796820561726855 7.337218890725615 -0.25869810581207275 102 102 102
3.1245128925532235 5.989369189315672 -0.25869810581207275 102 102 102
2.923435631991136 7.507630110030495 -0.2586981058120728 102 102 102
2.9874459720905673 7.6881299725716845 -0.25869810581207275 102 102 102
3.077913558337646 6.69178115315353 -0.25869810581207275 102 102 102
2.9996437381342154 7.131327446322712 -0.25869810581207275 102 102 102
3.021629732777799 9.934515671526402 -0.25869810581207275 102 102 102
3.288871436733571 5.831462964442226 -0.25869810581207275 102 102 102
3.6250623472196004 10.258630336576852 -0.25869810581207275 102 102 102
3.610531009466143 10.265600831982903 -0.25869810581207275 102 102 102
3.3402944157675547 9.903709907513367 -0.25869810581207275 102 102 102
3.238052994564315 7.457302096268176 -0.25869810581207275 102 102 102
3.0733000297780393 4.454056943845893 -0.25869810581207275 102 102 102
2.9401640550862016 5.92566729012208 -0.25869810581207275 102 102 102
3.1289188336208094 7.028561572836303 -0.25869810581207275 102 102 102
3.1144315745436675 4.1287008386696025 -0.25869810581207275 102 102 102
3.2450435733667735 9.046184645210388 -0.25869810581207275 102 102 102
3.4764491885053603 9.144608108276776 -0.25869810581207275 102 102 102
3.533689076959885 10.322581059662474 -0.25869810581207275 102 102 102
3.1049610430602286 6.420038205744728 -0.25869810581207275 102 102 102
3.2812691193306973 7.196559048364445 -0.25869810581207275 102 102 102
2.971101340823768 8.73415645554009 -0.25869810581207275 102 102 102
2.9297521251746157 5.325020479583768 -0.25869810581207275 102 102 102
2.9515837656592017 3.5521256160732197 -0.25869810581207275 102 102 102
3.4437317894113435 8.673825091240374 -0.25869810581207275 102 102 102
3.2406442053122064 6.447405514844892 -0.25869810581207275 102 102 102
3.009030337416289 5.4028021004595095 -0.25869810581207275 102 102 102
3.119523680221854 5.757078573663765 -0.25869810581207275 102 102 102
3.0898945488406095 9.784432313485322 -0.25869810581207275 102 102 102
3.0242214729931596 9.427349716967761 -0.25869810581207275 102 102 102
3.1729110473587308 5.545426860184923 -0.25869810581207275 102 102 102
3.1403734171443327 3.92424080786264 -0.25869810581207275 102 102 102
3.2278791955516484 7.77695788547727 -0.25869810581207275 102 102 102
3.004215550937431 7.16458931395816 -0.25869810581207275 102 102 102
3.166610940909505 8.249799230811846 -0.25869810581207275 102 102 102
3.1960143639859426 5.422076634412371 -0.25869810581207275 102 102 102
2.9347668317906814 1.9138861856477747 -0.25869810581207275 102 102 102
3.4438018119923655 9.95381970478202 -0.25869810581207275 102 102 102
2.934147778079721 3.3509769967277943 -0.25869810581207275 102 102 102
2.9772498913545187 10.198335200333517 -0.25869810581207275 102 102 102
3.000362581677 2.872294486829326 -0.25869810581207275 102 102 102
3.372126975411417 10.302891512375044 -0.25869810581207275 102 102 102
3.1565735412558027 7.6430343826957605 -0.25869810581207275 102 102 102
3.07867119226037 5.320371187208844 -0.25869810581207275 102 102 102
3.496779090049973 8.95567149688793 -0.25869810581207275 102 102 102
2.940177109851962 4.790828375472632 -0.2586981058120727 102 102 102
3.3316661721434055 9.092074169391282 -0.25869810581207275 102 102 102
3.531916329896839 10.305174765021052 -0.25869810581207275 102 102 102
3.386708160496068 9.559495149493083 -0.25869810581207275 102 102 102
3.4236853043626043 9.724507243075916 -0.25869810581207275 102 102 102
3.067698545989204 10.01066366233724 -0.25869810581207275 102 102 102
3.1406171992323353 6.613056273951275 -0.25869810581207275 102 102 102
3.012788302116141 3.572934532580626 -0.25869810581207275 102 102 102
3.5243164766614417 4.630142772342362 -0.25869810581207275 102 102 102
3.5703086567535327 5.8671389611408005 -0.25869810581207275 102 102 102
3.4035673600007703 3.8404179265713836 -0.25869810581207275 102 102 102
3.433362041156196 5.491173172301514 -0.25869810581207275 102 102 102
3.120973808327711 1.6810214223692523 -0.25869810581207275 102 102 102
3.5664258305900995 7.168910888302151 -0.2586981058120727 102 102 102
3.3396103762997305 5.821775485908947 -0.25869810581207275 102 102 102
3.389369048303439 2.089871562627623 -0.25869810581207275 102 102 102
3.453124803813687 6.567829597814452 -0.25869810581207275 102 102 102
3.62081673297647 1.7918090552767416 -0.25869810581207275 102 102 102
3.4658022207359487 1.589130205945947 -0.25869810581207275 102 102 102
3.5818981932826084 2.4689377091347806 -0.25869810581207275 102 102 102
3.4609323311090607 6.694178701047923 -0.2586981058120727 102 102 102
3.237608263845146 3.3662722276833534 -0.25869810581207275 102 102 102
3.1955916591966487 2.6532847314009054 -0.25869810581207275 102 102 102
3.4904316256073877 7.339248877306582 -0.25869810581207275 102 102 102
3.3501172150824687 6.468557695320145 -0.25869810581207275 102 102 102
3.1411790296452513 1.9973582348983894 -0.25869810581207275 102 102 102
3.5650764384805145 8.096711954165002 -0.25869810581207275 102 102 102
3.0376660734582357 2.01574546544293 -0.25869810581207275 102 102 102
3.3975937307190085 3.6018963108734883 -0.25869810581207275 102 102 102
3.3947590087754347 1.9661806961680819 -0.25869810581207275 102 102 102
3.4038231067648526 1.2339639964248463 -0.25869810581207275 102 102 102
3.4856458630252773 2.0751748317523857 -0.25869810581207275 102 102 102
3.553199939868604 8.702453636332361 -0.25869810581207275 102 102 102
3.446204618757333 3.1781404134765148 -0.25869810581207275 102 102 102
3.5502785149195777 4.705714263245427 -0.25869810581207275 102 102 102
3.5024650610072086 7.390755995171565 -0.25869810581207275 102 102 102
3.441816226472073 3.1445776558391687 -0.25869810581207275 102 102 102
3.3680976937380738 4.495962210708476 -0.25869810581207275 102 102 102
3.2659679305103984 4.181308010920876 -0.25869810581207275 102 102 102
3.581585573788223 5.970557220585763 -0.25869810581207275 102 102 102
3.315319715879386 5.999314590220885 -0.25869810581207275 102 102 102
3.396569843712806 3.6445181563930897 -0.25869810581207275 102 102 102
2.979203288884223 1.2250255947732143 -0.25869810581207275 102 102 102
3.539339909954882 3.375270817234911 -0.25869810581207275 102 102 102
3.431942785303896 3.8090586710936263 -0.25869810581207275 102 102 102
3.529564553886666 5.247071959777422 -0.25869810581207275 102 102 102
3.601131017568358 5.155445763529945 -0.25869810581207275 102 102 102
3.540103626087091 8.10567559704384 -0.25869810581207275 102 102 102
3.568698451481214 1.6385641651275957 -0.25869810581207275 102 102 102
3.2439625859599035 4.6122781726561195 -0.25869810581207275 102 102 102
3.476471900969657 7.0399238497692895 -0.25869810581207275 102 102 102
3.487726511340106 3.1635085317553537 -0.25869810581207275 102 102 102
3.427357999669005 6.184966167741774 -0.25869810581207275 102 102 102
3.445686055697907 3.8906471837761774 -0.25869810581207275 102 102 102
3.4352345152274197 1.6753032308278077 -0.25869810581207275 102 102 102
3.450656827876929 3.6753919631224514 -0.25869810581207275 102 102 102
3.500712713760784 7.88277227638297 -0.25869810581207275 102 102 102
3.34416198864265 4.968715313791932 -0.25869810581207275 102 102 102
3.1087673539417913 2.264914513080327 -0.25869810581207275 102 102 102
3.2266264892522916 1.9244750873727465 -0.25869810581207275 102 102 102
3.5036690745821484 2.825310282861235 -0.25869810581207275 102 102 102
3.501982427626901 1.3043908148062993 -0.25869810581207275 102 102 102
3.4201412653890073 6.762416489344295 -0.25869810581207275 102 102 102
3.596565037248502 6.42341658480703 -0.25869810581207275 102 102 102
3.0643802439575514 2.854498733972444 -0.2586981058120727 102 102 102
3.6150085772859297 4.298990631234496 -0.25869810581207275 102 102 102
3.5877621081681372 4.557955350937426 -0.25869810581207275 102 102 102
3.5858593571575934 3.258969100249197 -0.25869810581207275 102 102 102
3.364890033130382 5.535876013469319 -0.25869810581207275 102 102 102
3.3610913197549253 6.408432866222663 -0.25869810581207275 102 102 102
3.371700023930363 6.262842901769885 -0.25869810581207275 102 102 102
3.3741784752903765 1.8755103154756785 -0.25869810581207275 102 102 102
3.5126742126541357 5.714473721947436 -0.25869810581207275 102 102 102
3.382297653247055 3.850222110954915 -0.25869810581207275 102 102 102
3.302679602737891 5.737710548238815 -0.25869810581207275 102 102 102
3.2543550600658606 1.039537854277184 -0.25869810581207275 102 102 102
3.1971483515360926 4.341123436477439 -0.25869810581207275 102 102 102
3.636557461291313 8.940178142574513 -0.25869810581207275 102 102 102
3.6159677896500924 6.180898808394696 -0.25869810581207275 102 102 102
3.5654196499015556 5.0462626288616494 -0.25869810581207275 102 102 102
3.398379063447975 4.518015124175478 -0.25869810581207275 102 102 102
3.6360490155327714 10.167352945813024 -0.25869810581207275 102 102 102
3.344946084041582 2.290717262955278 -0.25869810581207275 102 102 102
3.586375254083308 3.297726615320658 -0.25869810581207275 102 102 102
3.3662145865979145 4.11256352578916 -0.25869810581207275 102 102 102
3.3766139645978326 5.459945923564205 -0.25869810581207275 102 102 102
3.4040071866771533 1.5657288348842537 -0.25869810581207275 102 102 102
3.257775433195552 4.6743463539866665 -0.25869810581207275 102 102 102
3.622159512447444 2.7324499640523854 -0.25869810581207275 102 102 102
3.5907700700240963 8.938774478440461 -0.25869810581207275 102 102 102
3.569942950906571 2.2441170262503722 -0.25869810581207275 102 102 102
3.633043110144614 3.859973554514644 -0.25869810581207275 102 102 102
3.249257059391025 2.9116554739415936 -0.25869810581207275 102 102 102
3.541766929328744 1.3211984630868652 -0.25869810581207275 102 102 102
3.474300453951574 4.223642140000773 -0.25869810581207275 102 102 102
3.5656893313702613 1.5455340375608824 -0.25869810581207275 102 102 102
3.427022506605037 6.834739556651767 -0.25869810581207275 102 102 102
3.395480977555388 3.717753874951706 -0.25869810581207275 102 102 102
3.2317817785999887 4.288640608967921 -0.25869810581207275 102 102 102
3.180816048698274 2.170066571866445 -0.25869810581207275 102 102 102
3.4214935735962455 6.628951021382781 -0.25869810581207275 102 102 102
3.640188521836747 4.733632070422658 -0.25869810581207275 102 102 102
3.6236243109974975 6.788333866224141 -0.25869810581207275 102 102 102
3.5649110381684546 2.66901372830185 -0.25869810581207275 102 102 102
3.5352525149958063 4.561726463455261 -0.25869810581207275 102 102 102
3.3947613034483637 2.969261081491239 -0.25869810581207275 102 102 102
3.0295112908307082 1.8337553549759935 -0.25869810581207275 102 102 102
3.7090978622436523 3.7433026289390625 0.14365252067549428 102 102 102
3.7090978622436523 7.315573488110291 0.1856549610192857 102 102 102
3.7090978622436523 3.2003327311894165 0.17027056535740892 102 102 102
3.709097862243653 1.6932068411184806 -0.06347752046934532 102 102 102
3.7090978622436523 5.48060160743335 0.04221086306313854 102 102 102
3.7090978622436523 4.445266624623941 -0.03394918837564595 102 102 102
3.7090978622436523 5.347377913543946 0.09665287011282853 102 102 102
3.7090978622436523 3.3296734708182836 -0.07545826661878208 102 102 102
3.7090978622436523 5.068493289664786 0.14147726650104073 102 102 102
3.7090978622436523 6.6833072683522445 0.08722367131463771 102 102 102
3.7090978622436523 5.316115573184524 0.0206781422581776 102 102 102
3.7090978622436523 5.788595353962057 0.09939417203765774 102 102 102
3.7090978622436523 3.7965582119195362 -0.02188134181049406 102 102 102
3.7090978622436523 1.9201459056256174 0.006609719079869597 102 102 102
3.7090978622436523 4.189757629293987 0.08233133289920101 102 102 102
3.7090978622436523 4.0257150597653855 -0.06394761720676002 102 102 102
3.7090978622436523 3.063496398897584 -0.09985827108092113 102 102 102
3.7090978622436523 3.473623715023065 0.048221719542915126 102 102 102
3.7090978622436523 5.2299628343362246 0.03695534588652266 102 102 102
3.7090978622436523 2.0866000732102443 -0.1208814435469488 102 102 102
3.7090978622436523 2.521006866333403 0.06547374236893659 102 102 102
3.7090978622436523 3.5158833628616093 0.11179205148266491 102 102 102
3.7090978622436523 1.8524858904011658 -0.15243604450495207 102 102 102
3.7090978622436523 1.725145039472146 0.18507337715663336 102 102 102
3.7090978622436523 5.983389503016736 0.1287967427193395 102 102 102
3.7090978622436523 7.735303549542301 0.12295167425553971 102 102 102
3.7090978622436523 1.4674523910248 0.05395092747375932 102 102 102
3.7090978622436523 7.663705654411383 0.14513611980171742 102 102 102
3.709097862243652 4.226126865951265 0.023697858994960963 102 102 102
3.7090978622436523 1.6643812931525368 -0.1242009198206016 102 102 102
3.7090978622436523 2.4133954257883232 0.08654650199247588 102 102 102
3.7090978622436523 5.029076535396486 0.016930267322328274 102 102 102
3.7090978622436523 4.202747060548485 0.009147346452529154 102 102 102
3.7090978622436523 1.503985247950853 -0.010496463906505493 102 102 102
3.7090978622436523 1.853068541639066 -0.07045304433584962 102 102 102
3.7090978622436523 1.9210731837830108 -0.07256860654066898 102 102 102
3.709097862243652 1.4400750028999856 -0.098163246796583 102 102 102
3.7090978622436523 1.2905606388996522 -0.08297308810913506 102 102 102
3.7090978622436523 4.4575399158994005 0.016086769236069998 102 102 102
3.7090978622436523 0.9880507934632939 0.1815538505381277 102 102 102
3.7090978622436523 2.4712177860133733 0.18917706221749547 102 102 102
3.7090978622436523 3.192578867442398 0.17271116516020116 102 102 102
3.7090978622436523 1.4263134841118568 0.1483316329987881 102 102 102
3.7090978622436523 9.473206575408673 0.1599063123458077 102 102 102
3.7090978622436523 8.953101824711545 0.14809634917598435 102 102 102
3.7090978622436523 1.5879195025577129 0.09441845768853051 102 102 102
3.709097862243652 5.139128367727183 0.15443236348720418 102 102 102
3.7090978622436523 3.522728168721651 -0.025420860654902858 102 102 102
3.7090978622436523 1.4524025654069312 -0.10661266194803776 102 102 102
3.7090978622436523 2.598260189062749 -0.10182217131005894 102 102 102
3.7090978622436523 6.695086254988993 0.12785300893361956 102 102 102
3.709097862243653 1.2969980502881677 -0.11726646949299774 102 102 102
3.7090978622436523 4.111169642251538 -0.06707345961034766 102 102 102
3.7090978622436523 9.665934384404913 0.03536102148249705 102 102 102
3.709097862243653 2.1432798746993136 -0.17203182405845296 102 102 102
3.7090978622436523 6.109836904237044 -0.1648905159616957 102 102 102
3.7090978622436523 9.58750435632993 -0.1421946948771593 102 102 102
3.7090978622436523 8.427151111019835 -0.019318783410043207 102 102 102
3.7090978622436523 8.974196412659538 -0.16508798576779887 102 102 102
3.709097862243652 9.860144598353527 0.10498467047779793 102 102 102
3.7090978622436523 10.255513613403412 0.11952060081964405 102 102 102
3.7090978622436523 4.672124875355014 -0.060692645402843505 102 102 102
3.709097862243652 2.0006676721358496 -0.16079248625053894 102 102 102
3.7090978622436523 9.830050407280506 -0.12706645963091218 102 102 102
3.7090978622436523 7.89237514787424 0.05778110734452778 102 102 102
3.7090978622436523 7.650819330753205 -0.04130108519223554 102 102 102
3.7090978622436523 9.689326054596025 0.048812074116597805 102 102 102
3.7090978622436523 5.820735346425154 -0.002215117325360826 102 102 102
3.7090978622436523 2.8824930595429428 -0.1708897086035891 102 102 102
3.7090978622436523 6.168922164919822 -0.01334733940980002 102 102 102
3.7090978622436523 6.634295208119072 -0.12455168698383273 102 102 102
3.7090978622436523 8.921584067317758 0.0898192799195785 102 102 102
3.7090978622436523 7.845704268173389 -0.1278639049956657 102 102 102
3.7090978622436523 6.6683985418396325 -0.035825724394063244 102 102 102
3.7090978622436523 4.170250044005798 -0.1459029463434332 102 102 102
3.7090978622436523 9.948262422496411 0.04863036308328304 102 102 102
3.7090978622436523 9.931591966078601 -0.05181825847078691 102 102 102
3.7090978622436523 6.323377866026764 -0.028498967568711935 102 102 102
3.7090978622436523 8.428193873413553 -0.07005313534364668 102 102 102
3.7090978622436523 8.082412632911051 -0.0029830091049497243 102 102 102
3.7090978622436523 10.068730353486666 0.09476781296308985 102 102 102
3.7090978622436523 6.66211585810021 -0.07871683931392308 102 102 102
3.7090978622436523 2.664299488869495 -0.16176423965676834 102 102 102
3.7090978622436523 10.277023613507907 -0.01570748844836245 102 102 102
3.7090978622436523 7.59833431804593 -0.17583956342148088 102 102 102
3.7090978622436523 10.226634059993064 0.17437293890467956 102 102 102
3.7090978622436523 7.504729542936149 -0.033590042053234376 102 102 102
3.7090978622436523 9.51948734082218 -0.15530127429858426 102 102 102
3.709097862243652 7.048752193479828 0.0393914013295953 102 102 102
3.7090978622436523 1.898859042683668 -0.18939619738460733 102 102 102
3.7090978622436523 6.010617447992964 -0.17472742530481267 102 102 102
3.7090978622436523 8.321136302493786 -0.05271462434553384 102 102 102
3.7090978622436523 3.91823378010545 -0.08629644426635134 102 102 102
3.7090978622436523 7.762306386565387 -0.05312920266190904 102 102 102
3.7090978622436523 8.992486793520431 -0.029635935220293647 102 102 102
3.7090978622436523 5.812633372573822 -0.02482006127389738 102 102 102
3.7090978622436532 5.026412711389667 -0.13216698504115681 102 102 102
3.7090978622436523 9.700256414846319 0.10645298340057346 102 102 102
3.7090978622436523 10.116159125775885 0.17820484083483046 102 102 102
3.7090978622436523 2.9303673318915395 -0.13951557008607463 102 102 102
3.7090978622436523 8.942352105906416 0.10005865315809553 102 102 102
3.7090978622436523 9.67068172392812 -0.05672400398460599 102 102 102
3.7090978622436523 9.66188981959659 0.08612757060996644 102 102 102
3.7090978622436523 9.53931406444413 0.0725584744056676 102 102 102
2.8503642082214355 2.0324875809947036 -0.05944106669464068 102 102 102
2.8503642082214355 6.731800930959716 -0.15122742692371516 102 102 102
2.8503642082214355 5.6804852059495285 -0.14670163750862397 102 102 102
2.8503642082214355 1.498954975058921 0.11178801455851134 102 102 102
2.8503642082214355 1.2822172482304648 -0.04897987046461731 102 102 102
2.8503642082214355 2.56915997018885 0.04532653963684358 102 102 102
2.8503642082214355 3.147455940588506 0.009074069726150935 102 102 102
2.8503642082214355 5.201569265072886 -0.03614299008447952 102 102 102
2.8503642082214355 4.022879953733434 -0.02370193082444108 102 102 102
2.850364208221435 2.3053129489021305 -0.18644705890032567 102 102 102
2.8503642082214355 6.667985675509235 -0.07099509070351967 102 102 102
2.8503642082214355 3.769026595258725 0.04228245711419691 102 102 102
2.850364208221436 2.806603194211566 -0.1715105561007072 102 102 102
2.8503642082214355 4.448039466967062 -0.012763659781128936 102 102 102
2.8503642082214355 1.2762006329067268 -0.05550949118770769 102 102 102
2.8503642082214355 5.726957764986381 -0.06382164516152286 102 102 102
2.8503642082214355 5.778497122263547 -0.009567136168044818 102 102 102
2.8503642082214355 2.667899131042731 -0.04782684524009073 102 102 102
2.8503642082214355 6.390318807631005 -0.06411768649493575 102 102 102
2.8503642082214355 6.032297909260271 -0.03963393476800632 102 102 102
2.8503642082214355 7.619177052487978 -0.1071667258338045 102 102 102
2.8503642082214355 5.34764032184666 -0.168789833602501 102 102 102
2.8503642082214355 3.620820219977269 -0.132649817200985 102 102 102
2.8503642082214355 1.397171443366425 0.10382334498380001 102 102 102
2.8503642082214355 2.765166316428573 -0.03249165599873455 102 102 102
2.8503642082214355 1.8687289404192784 0.06485321816712503 102 102 102
2.8503642082214355 6.007174480423459 -0.13509496546177713 102 102 102
2.8503642082214355 0.9934372783909603 0.12062654969582486 102 102 102
2.8503642082214355 7.136212898280791 -0.1893911351635693 102 102 102
2.850364208221435 5.18917933543552 -0.17865995993033845 102 102 102
2.8503642082214355 2.9085101952212513 -0.07534185822842082 102 102 102
2.8503642082214355 7.503739553184658 -0.11195898128372744 102 102 102
2.8503642082214355 2.7691445114757047 -0.10363957871993446 102 102 102
2.8503642082214355 2.643120296342814 -0.03975278204240659 102 102 102
2.8503642082214355 4.704225859841164 -0.08603186279412939 102 102 102
2.850364208221435 6.405049449974237 -0.11655458068015817 102 102 102
2.8503642082214355 1.916339960758138 0.037251110138700055 102 102 102
2.8503642082214355 5.678612788437985 -0.006745479965467094 102 102 102
2.8503642082214355 1.5585549429616208 0.1529420241287892 102 102 102
2.8503642082214355 2.148262679509551 0.04366994513233187 102 102 102
2.8503642082214355 2.723224086660595 -0.1341684156712318 102 102 102
2.8503642082214355 9.313079326904367 -0.15453652950859115 102 102 102
2.8503642082214355 7.61390311019692 -0.15005846036585802 102 102 102
2.8503642082214355 8.023207545237842 -0.09593512324897524 102 102 102
2.8503642082214355 2.5647725858677686 0.03719033007671822 102 102 102
2.8503642082214355 1.8496355614550217 0.12339365867576424 102 102 102
2.8503642082214355 2.806778799527359 -0.1636269374299859 102 102 102
2.8503642082214355 2.6772472842496207 -0.0076002726467480075 102 102 102
2.8503642082214355 4.054969972921017 0.062380400817350135 102 102 102
2.8503642082214355 2.215189297188564 -0.18647866113060463 102 102 102
2.850364208221436 4.177642139331103 -0.161411923582911 102 102 102
2.8503642082214355 1.6017258512476742 -0.0795326073492103 102 102 102
2.8503642082214355 8.555299693188552 0.17242034422975228 102 102 102
2.8503642082214355 9.523771479233005 0.05594070399081832 102 102 102
2.8503642082214355 8.211160947525839 -0.0492052111059877 102 102 102
2.8503642082214355 7.30515099907335 -0.06395841614590246 102 102 102
2.8503642082214355 2.1485980273981085 0.17825384653767776 102 102 102
2.8503642082214355 7.200930074179404 0.08601486691587837 102 102 102
2.8503642082214355 9.27751910936292 0.17715885080315052 102 102 102
2.8503642082214355 4.657558004891227 0.1686881660183797 102 102 102
2.8503642082214355 4.5235075253129855 0.1372716574868978 102 102 102
2.850364208221436 3.021574679711381 0.18322679258197955 102 102 102
2.850364208221435 9.426692037939091 -0.1513929377129801 102 102 102
2.8503642082214355 5.88757998624265 0.15819246638353263 102 102 102
2.8503642082214355 9.084513121217354 -0.07713939519583135 102 102 102
2.8503642082214355 8.910475068444011 0.0013136598759205254 102 102 102
2.8503642082214355 4.134598859616531 0.19039473413836777 102 102 102
2.8503642082214355 8.029852187890288 0.053722847782865506 102 102 102
2.8503642082214355 8.051195661078543 0.022630253513322846 102 102 102
2.8503642082214355 8.186941987857892 -0.03811445940715945 102 102 102
2.8503642082214355 9.588066695415211 0.08922401350117902 102 102 102
2.8503642082214355 4.917411594408538 0.14775839060443005 102 102 102
2.8503642082214355 9.560538614952385 0.17701025316608737 102 102 102
2.8503642082214355 3.191439644359221 0.11401839795894331 102 102 102
2.8503642082214355 9.79696117249355 0.06175731871896787 102 102 102
2.850364208221436 8.485107514887005 -0.056817324026518984 102 102 102
2.8503642082214355 7.1875926474127825 -0.03224896889687687 102 102 102
2.8503642082214355 8.110731543624516 -0.06993996702099652 102 102 102
2.8503642082214355 9.780803674445902 0.15703800678217453 102 102 102
2.850364208221435 7.499399444378082 -0.041559653231230856 102 102 102
2.8503642082214355 7.580036633172194 0.06124413822945743 102 102 102
2.8503642082214355 8.233362129344687 0.17831264931065982 102 102 102
2.8503642082214355 8.900965984025671 0.1684384652759739 102 102 102
2.850364208221436 10.32368071466312 0.0899500010971952 102 102 102
2.850364208221436 8.997393392682007 -0.12445307386893079 102 102 102
2.8503642082214355 8.44247615858647 0.18141529047482596 102 102 102
2.8503642082214355 9.63235943145828 -0.10460810341837445 102 102 102
2.8503642082214355 2.3062499318577734 0.16965770188743773 102 102 102
2.850364208221435 9.642692637606768 0.1826311734816619 102 102 102
2.8503642082214355 6.460781830809623 0.039678734166578 102 102 102
2.8503642082214355 10.26095594274879 -0.02965273197407392 102 102 102
2.8503642082214355 4.2482437049595925 0.1888380679011367 102 102 102
2.8503642082214355 7.263607749384629 0.10660562846959754 102 102 102
2.850364208221435 8.696072660687404 -0.11259088565514357 102 102 102
2.8503642082214355 6.299449889392886 0.07183618732829712 102 102 102
2.8503642082214355 10.147661323631418 0.04276464544445585 102 102 102
2.8503642082214355 4.784706563005323 0.05839859646230163 102 102 102
2.8503642082214355 2.807706628855612 0.12075331747857566 102 102 102
2.8503642082214355 6.505207172698748 0.07229573201958331 102 102 102
2.8503642082214355 7.379461504832658 0.04822774925159806 102 102 102
2.8503642082214355 5.4904127960614755 0.06670939728930256 102 102 102
2.850364208221436 8.7884435408345 -0.08714410927941377 102 102 102
2.8503642082214355 8.290386639171198 0.022461255395706987 102 102 102
2.8503642082214355 5.93487301075438 0.17801151294103426 102 102 102
2.8503642082214355 8.032299568017718 0.13170329878489287 102 102 102
2.8635002723522067 5.128686461220363 0.22238082348643423 102 102 102
2.8702203737648517 8.725291080793536 0.23860471538747746 102 102 102
2.8577898574775937 3.1214708016672237 0.20859455034158217 102 102 102
2.8702810003859676 2.4036047476463027 0.2387510821886486 102 102 102
2.86123347143774 1.1337506415399805 0.21690823747332888 102 102 102
2.8621957772373876 3.8794331121409047 0.21923146807813024 102 102 102
2.870188588036104 3.5518009718341985 0.2385279772260222 102 102 102
2.863961000799352 8.025987531956863 0.2234931293971987 102 102 102
2.851234535645721 2.797661431298354 0.19276847477422 102 102 102
2.8590712053489464 6.550328640908311 0.2116880229063477 102 102 102
2.8537524891158395 6.437026465253554 0.198847401624073 102 102 102
2.856334694759046 7.966246249457267 0.20508144820301488 102 102 102
2.863253021097395 9.194741972794201 0.22178390129967823 102 102 102
2.8584465118475473 5.639967784909036 0.21017986711886033 102 102 102
2.8975387037653517 4.252384340034099 0.2500591576690062 102 102 102
2.8928231536517877 2.3505354238035334 0.24810591968353007 102 102 102
2.9084016449372116 3.777774580908883 0.2545587195058828 102 102 102
2.897108216229708 1.3750508743481231 0.24988084451642742 102 102 102
2.8887757827992884 4.552730679808959 0.2464294496429146 102 102 102
2.9129501356121703 1.6167512073663972 0.2564427594479797 102 102 102
2.9144429145378985 3.9500554797199317 0.25706108656389004 102 102 102
2.87173812817033 7.115672080978981 0.23937224668604556 102 102 102
2.8879722148053872 9.093946784420439 0.24609660204469141 102 102 102
2.899296412348285 9.009469862439673 0.2507872218585283 102 102 102
2.8836349215835084 3.865212624456054 0.24430004264629718 102 102 102
2.8722912872642508 2.7484192846908266 0.2396013718842169 102 102 102
2.912932997129209 9.401031080316596 0.25643566048070604 102 102 102
2.890493128837965 9.890627437243491 0.24714079517761717 102 102 102
3.685987561775423 5.600109886305114 0.2400913908523727 102 102 102
3.656923030568222 1.0064963073732331 0.2521303911274885 102 102 102
3.6789778186266053 7.307990933528387 0.24299494016804862 102 102 102
3.688366487434456 8.843482161587483 0.23910600125639359 102 102 102
3.662613340906421 2.465697868622663 0.2497733722841877 102 102 102
3.672563927534447 6.588376889688826 0.24565167789667636 102 102 102
3.651000920023637 2.7786048796074287 0.25458342537625217 102 102 102
3.646628190323429 5.341339086703504 0.25639468094712375 102 102 102
3.649934145981482 8.750757051923742 0.2550253004884099 102 102 102
3.6645208940224276 8.026785329931004 0.24898323284155652 102 102 102
3.6795364881524497 10.239575707755654 0.24276353018839358 102 102 102
3.649106629573046 7.181481634259165 0.25536807120773797 102 102 102
3.683748640818885 9.384024557627356 0.24101878822959374 102 102 102
3.665979095944368 8.855232115421348 0.2483792219523298 102 102 102
3.6942132715294522 2.1194222822790474 0.22660174443411707 102 102 102
3.7086856954523957 2.2683949034162496 0.19166235625926012 102 102 102
3.6995784004001697 2.700917288756916 0.2136492272040934 102 102 102
3.7072694370181476 7.8928965583109685 0.19508149347176748 102 102 102
3.7080764851882013 1.5271719812500848 0.19313311430325694 102 102 102
3.6971919089149488 3.94365842044092 0.2194107052275443 102 102 102
